ply
format ascii 1.0
comment Created by CloudCompare v2.13.alpha (02/01/2023)
comment Created 2023-02-03T15:04:52
obj_info Generated by CloudCompare!
element vertex 1449
property float x
property float y
property float z
end_header
-57.250000 137.427994 32.696003 
-56.750000 137.413986 32.315102 
-56.250000 137.401001 31.934202 
-55.750000 137.384003 31.426199 
-55.250000 137.370010 31.045301 
-54.750000 137.352997 30.537401 
-54.250000 137.335007 30.029499 
-53.750000 137.312988 29.394501 
-53.250000 137.291000 28.759699 
-52.750000 137.264999 27.997799 
-52.250000 137.234009 27.108900 
-51.750000 137.194000 25.966101 
-51.250000 137.132004 24.188400 
-50.750000 137.092987 23.045500 
-50.250000 137.052994 21.902700 
-49.750000 137.000000 20.379000 
-49.250000 136.974014 19.617100 
-48.750000 136.876999 16.823500 
-48.250000 136.815002 15.045800 
-47.750000 136.802002 14.664900 
-91.000000 137.709000 19.870001 
-90.500000 137.783005 22.028700 
-90.000000 137.796005 22.409599 
-89.500000 138.294998 37.012100 
-89.000000 138.343002 38.408901 
-88.500000 138.382004 39.551701 
-88.000000 138.416000 40.567497 
-87.500000 138.447006 41.456402 
-87.000000 138.468002 42.091297 
-86.500000 138.494003 42.853100 
-86.000000 138.515991 43.487999 
-85.500000 138.538010 44.122902 
-85.000000 138.555008 44.630798 
-84.500000 138.572006 45.138702 
-84.000000 138.589996 45.646599 
-83.500000 138.602997 46.027599 
-83.000000 138.615997 46.408501 
-82.500000 138.628998 46.789402 
-82.000000 138.646011 47.297398 
-81.500000 138.655014 47.551300 
-81.000000 138.667999 47.932301 
-80.500000 138.676010 48.186203 
-80.000000 138.681000 48.425701 
-79.500000 138.686005 48.665199 
-79.000000 138.690994 48.904800 
-78.500000 138.693008 49.024502 
-78.000000 138.693008 49.024502 
-77.500000 138.693008 49.024502 
-77.000000 138.695007 49.144302 
-76.500000 138.695007 49.144302 
-76.000000 138.695007 49.144302 
-75.500000 138.693008 49.024502 
-75.000000 138.693008 49.024502 
-74.500000 138.690994 48.904800 
-74.000000 138.688004 48.785000 
-73.500000 138.686005 48.665199 
-73.000000 138.682999 48.545498 
-72.500000 138.681000 48.425701 
-72.000000 138.676010 48.186203 
-71.500000 138.671997 48.059200 
-71.000000 138.658997 47.678299 
-70.500000 138.649994 47.424301 
-70.000000 138.637009 47.043404 
-69.500000 138.623993 46.662498 
-69.000000 138.615997 46.408501 
-68.500000 138.593994 45.773598 
-68.000000 138.580994 45.392700 
-67.500000 138.555008 44.630798 
-67.000000 138.538010 44.122902 
-66.500000 138.511993 43.361000 
-66.000000 138.485992 42.599201 
-65.500000 138.455002 41.710297 
-65.000000 138.424988 40.821499 
-64.500000 138.403000 40.186600 
-64.000000 138.368988 39.170700 
-63.500004 138.316010 37.647003 
-63.000000 138.281998 36.631199 
-62.500000 138.251007 35.742302 
-62.000000 138.237991 35.361401 
-61.500000 138.225006 34.980499 
-61.000000 138.208008 34.472500 
-60.500000 138.194992 34.091599 
-60.000000 138.185989 33.837700 
-59.500000 138.178009 33.583702 
-59.000000 138.169006 33.329800 
-58.500000 138.160004 33.075798 
-58.000000 138.152008 32.821800 
-57.500000 138.138992 32.440903 
-57.000000 138.126007 32.060001 
-56.500000 138.113007 31.679001 
-56.000000 138.095001 31.171101 
-55.500000 138.082001 30.790201 
-55.000000 138.065002 30.282299 
-54.500000 138.047989 29.774399 
-54.000000 138.026001 29.139500 
-53.500000 138.003998 28.504601 
-53.000000 137.977997 27.742701 
-52.500000 137.934998 26.472900 
-52.000000 137.891998 25.203100 
-51.500000 137.831009 23.425400 
-51.000000 137.799988 22.536600 
-50.500000 137.774002 21.774700 
-50.000000 137.718002 20.123999 
-49.500000 137.669998 18.727301 
-49.000000 137.587997 16.314701 
-48.500000 137.557999 15.425800 
-48.000000 137.505997 13.902100 
-90.750000 138.483002 21.265799 
-90.250000 138.522003 22.408602 
-89.750000 138.917999 34.217400 
-89.250000 139.025009 37.391800 
-88.750000 139.054993 38.280598 
-88.250000 139.097000 39.550400 
-87.750000 139.126999 40.439201 
-87.250000 139.153000 41.201099 
-86.750000 139.179001 41.963001 
-86.250000 139.203995 42.724800 
-85.750000 139.220993 43.232700 
-85.250000 139.243011 43.867599 
-84.750000 139.255005 44.248501 
-84.250000 139.272003 44.756401 
-83.750000 139.289001 45.264400 
-83.250000 139.302002 45.645302 
-82.750000 139.314987 46.026199 
-82.250000 139.332001 46.534100 
-81.750000 139.345001 46.914997 
-81.250000 139.353012 47.168999 
-80.750000 139.365997 47.549900 
-80.250000 139.375000 47.803902 
-79.750000 139.382996 48.057796 
-79.250000 139.389999 48.304600 
-78.750000 139.391998 48.424301 
-78.250000 139.393997 48.544102 
-77.750000 139.396988 48.663898 
-77.250000 139.396988 48.663898 
-76.750000 139.396988 48.663898 
-76.250000 139.396988 48.663898 
-75.750000 139.396988 48.663898 
-75.250000 139.396988 48.663898 
-74.750000 139.393997 48.544102 
-74.250000 139.391998 48.424301 
-73.750000 139.389999 48.304600 
-73.250000 139.388000 48.184799 
-72.750000 139.388000 48.184799 
-72.250000 139.378998 47.930901 
-71.750000 139.370987 47.676899 
-71.250000 139.365997 47.549900 
-70.750000 139.358002 47.295998 
-70.250000 139.345001 46.914997 
-69.750000 139.335999 46.661102 
-69.250000 139.323990 46.280201 
-68.750000 139.307007 45.772301 
-68.250000 139.293991 45.391300 
-67.750000 139.276993 44.883400 
-67.250000 139.255005 44.248501 
-66.750000 139.234009 43.613602 
-66.250000 139.212997 42.978802 
-65.750000 139.182999 42.089897 
-65.250000 139.153000 41.201099 
-64.750000 139.126999 40.439201 
-64.250000 139.101990 39.677399 
-63.750000 139.054993 38.280598 
-63.249996 139.025009 37.391800 
-62.749996 138.987000 36.249001 
-62.250000 138.964996 35.614098 
-61.750000 138.947998 35.106201 
-61.250000 138.931000 34.598297 
-60.750000 138.914001 34.090401 
-60.250000 138.906006 33.836498 
-59.750000 138.897003 33.582500 
-59.250000 138.888000 33.328602 
-58.750000 138.876007 32.947601 
-58.250000 138.871002 32.820702 
-57.750000 138.859009 32.439701 
-57.250000 138.845993 32.058800 
-56.750000 138.836990 31.804800 
-56.250000 138.820007 31.296902 
-55.750000 138.806992 30.916000 
-55.250000 138.789993 30.408100 
-54.750000 138.772995 29.900200 
-54.250000 138.751999 29.265299 
-53.750000 138.725998 28.503399 
-53.250000 138.701004 27.741600 
-52.750000 138.653992 26.344898 
-52.250000 138.597992 24.694201 
-51.750000 138.542999 23.043501 
-51.250000 138.513000 22.154600 
-50.750000 138.487000 21.392799 
-50.250000 138.445007 20.122999 
-49.750000 138.393997 18.599300 
-49.250000 138.312988 16.186699 
-48.750000 138.274002 15.044000 
-48.250000 138.223007 13.520200 
-91.000000 139.166992 19.995001 
-90.500000 139.209000 21.264801 
-90.000000 139.222000 21.645700 
-89.500000 139.688004 35.739899 
-89.000000 139.746002 37.517498 
-88.500000 139.779999 38.533298 
-88.000000 139.805008 39.295200 
-87.500000 139.843002 40.438000 
-87.000000 139.863998 41.072800 
-86.500000 139.884995 41.707699 
-86.000000 139.910004 42.469597 
-85.500000 139.923004 42.850502 
-85.000000 139.944000 43.485401 
-84.500000 139.955994 43.866299 
-84.000000 139.976990 44.501099 
-83.500000 139.985992 44.755100 
-83.000000 140.001999 45.263000 
-82.500000 140.014999 45.643898 
-82.000000 140.027008 46.024799 
-81.500000 140.039993 46.405800 
-81.000000 140.053009 46.786701 
-80.500000 140.065002 47.167599 
-80.000000 140.074005 47.421600 
-79.500000 140.082001 47.675503 
-79.000000 140.085999 47.802502 
-78.500000 140.089996 47.929501 
-78.000000 140.095001 48.056400 
-77.500000 140.098999 48.183399 
-77.000000 140.098999 48.183399 
-76.500000 140.098999 48.183399 
-76.000000 140.098999 48.183399 
-75.500000 140.098999 48.183399 
-75.000000 140.098999 48.183399 
-74.500000 140.095001 48.056400 
-74.000000 140.095001 48.056400 
-73.500000 140.085999 47.802502 
-73.000000 140.085999 47.802502 
-72.500000 140.082001 47.675503 
-72.000000 140.074005 47.421600 
-71.500000 140.069000 47.294601 
-71.000000 140.061005 47.040600 
-70.500000 140.053009 46.786701 
-70.000000 140.044006 46.532703 
-69.500000 140.035995 46.278801 
-69.000000 140.018997 45.770897 
-68.500000 140.006012 45.389999 
-68.000000 139.993988 45.008999 
-67.500000 139.973007 44.374203 
-67.000000 139.955994 43.866299 
-66.500000 139.934998 43.231403 
-66.000000 139.906006 42.342598 
-65.500000 139.880997 41.580700 
-65.000000 139.850998 40.691902 
-64.500000 139.826004 39.930103 
-64.000000 139.800995 39.168201 
-63.500004 139.759003 37.898499 
-63.000000 139.730011 37.009602 
-62.500000 139.709000 36.374802 
-62.000000 139.691986 35.866901 
-61.500000 139.675003 35.358997 
-61.000000 139.645996 34.470100 
-60.500000 139.625000 33.835300 
-60.000000 139.615997 33.581303 
-59.500000 139.612000 33.454399 
-59.000000 139.604004 33.200401 
-58.500000 139.595001 32.946503 
-58.000000 139.587006 32.692501 
-57.500000 139.569992 32.184601 
-57.000000 139.561996 31.930700 
-56.500000 139.548996 31.549700 
-56.000000 139.535995 31.168800 
-55.500000 139.515991 30.533901 
-55.000000 139.503006 30.153000 
-54.500000 139.482010 29.518099 
-54.000000 139.460999 28.883301 
-53.500000 139.436005 28.121401 
-53.000000 139.389999 26.724699 
-52.500000 139.318008 24.566101 
-52.000000 139.246994 22.407600 
-51.500000 139.234009 22.026600 
-51.000000 139.204987 21.137800 
-50.500000 139.166992 19.995001 
-50.000000 139.117004 18.471300 
-49.500000 139.046005 16.312799 
-49.000000 138.983002 14.408100 
-48.500000 138.944992 13.265400 
-91.250000 139.893997 19.993999 
-90.750000 139.934998 21.263800 
-90.250000 140.125000 27.104500 
-89.750000 140.132996 27.358500 
-89.250000 140.397003 35.484703 
-88.750000 140.454987 37.262299 
-88.250000 140.492004 38.405102 
-87.750000 140.516998 39.166901 
-87.250000 140.545990 40.055698 
-86.750000 140.570999 40.817600 
-86.250000 140.590988 41.452400 
-85.750000 140.608002 41.960400 
-85.250000 140.627991 42.595200 
-84.750000 140.645004 43.103100 
-84.250000 140.656998 43.483997 
-83.750000 140.673996 43.991901 
-83.250000 140.686005 44.372799 
-82.750000 140.699005 44.753799 
-82.250000 140.710999 45.134701 
-81.750000 140.727005 45.642498 
-81.250000 140.740005 46.023499 
-80.750000 140.751999 46.404400 
-80.250000 140.760010 46.658298 
-79.750000 140.769012 46.912300 
-79.250000 140.777008 47.166199 
-78.750000 140.781006 47.293201 
-78.250000 140.789001 47.547199 
-77.750000 140.792999 47.674099 
-77.250000 140.792999 47.674099 
-76.750000 140.792999 47.674099 
-76.250000 140.798004 47.801098 
-75.750000 140.792999 47.674099 
-75.250000 140.792999 47.674099 
-74.750000 140.792999 47.674099 
-74.250000 140.792999 47.674099 
-73.750000 140.789001 47.547199 
-73.250000 140.784988 47.420200 
-72.750000 140.781006 47.293201 
-72.250000 140.772995 47.039299 
-71.750000 140.772995 47.039299 
-71.250000 140.769012 46.912300 
-70.750000 140.755997 46.531403 
-70.250000 140.748001 46.277401 
-69.750000 140.740005 46.023499 
-69.250000 140.727005 45.642498 
-68.750000 140.718994 45.388603 
-68.250000 140.702988 44.880699 
-67.750000 140.690002 44.499798 
-67.250000 140.673996 43.991901 
-66.750000 140.656998 43.483997 
-66.250000 140.632996 42.722198 
-65.750000 140.604004 41.833401 
-65.250000 140.582993 41.198498 
-64.750000 140.554001 40.309700 
-64.250000 140.524994 39.420898 
-63.750000 140.492004 38.405102 
-63.249996 140.472000 37.770199 
-62.749996 140.451004 37.135399 
-62.250000 140.430008 36.500500 
-61.750000 140.417999 36.119598 
-61.250000 140.405991 35.738701 
-60.750000 140.376999 34.849899 
-60.250000 140.348007 33.961002 
-59.750000 140.334991 33.580097 
-59.250000 140.327011 33.326202 
-58.750000 140.319000 33.072201 
-58.250000 140.306992 32.691299 
-57.750000 140.294006 32.310402 
-57.250000 140.281998 31.929501 
-56.750000 140.268997 31.548601 
-56.250000 140.253006 31.040701 
-55.750000 140.236008 30.532799 
-55.250000 140.220001 30.024899 
-54.750000 140.203003 29.517000 
-54.250000 140.186996 29.009100 
-53.750000 140.166000 28.374201 
-53.250000 140.128998 27.231499 
-52.750000 140.074997 25.580799 
-52.250000 139.960007 22.025600 
-51.750000 139.952011 21.771601 
-51.250000 139.923004 20.882801 
-50.750000 139.893997 19.993999 
-50.250000 139.832001 18.089401 
-49.750000 139.803009 17.200600 
-49.250000 139.691986 13.772400 
-48.750000 139.638000 12.121699 
-91.500000 140.632996 20.373899 
-91.000000 140.656998 21.135799 
-90.500000 140.852005 27.230400 
-90.000000 140.863998 27.611300 
-89.500000 140.867996 27.738298 
-89.000000 141.106995 35.229603 
-88.500000 141.164001 37.007202 
-88.000000 141.201004 38.149902 
-87.500000 141.233002 39.165703 
-87.000000 141.252991 39.800499 
-86.500000 141.278000 40.562298 
-86.000000 141.297989 41.197201 
-85.500000 141.313995 41.705101 
-85.000000 141.331009 42.213001 
-84.500000 141.347000 42.720798 
-84.000000 141.359009 43.101799 
-83.500000 141.371002 43.482700 
-83.000000 141.386993 43.990601 
-82.500000 141.399994 44.371502 
-82.000000 141.412003 44.752399 
-81.500000 141.420013 45.006302 
-81.000000 141.435989 45.514198 
-80.500000 141.448013 45.895100 
-80.000000 141.460007 46.276100 
-79.500000 141.463989 46.403000 
-79.000000 141.472992 46.657001 
-78.500000 141.481003 46.910900 
-78.000000 141.485001 47.037899 
-77.500000 141.488998 47.164803 
-77.000000 141.492996 47.291801 
-76.500000 141.492996 47.291801 
-76.000000 141.492996 47.291801 
-75.500000 141.492996 47.291801 
-75.000000 141.492996 47.291801 
-74.500000 141.488998 47.164803 
-74.000000 141.488998 47.164803 
-73.500000 141.485001 47.037899 
-73.000000 141.485001 47.037899 
-72.500000 141.477005 46.783901 
-72.000000 141.472992 46.657001 
-71.500000 141.468002 46.530003 
-71.000000 141.460007 46.276100 
-70.500000 141.455994 46.149101 
-70.000000 141.444000 45.768200 
-69.500000 141.435989 45.514198 
-69.000000 141.427994 45.260300 
-68.500000 141.416000 44.879398 
-68.000000 141.399994 44.371502 
-67.500000 141.386993 43.990601 
-67.000000 141.371002 43.482700 
-66.500000 141.354996 42.974800 
-66.000000 141.331009 42.213001 
-65.500000 141.297989 41.197201 
-65.000000 141.282013 40.689301 
-64.500000 141.257996 39.927502 
-64.000000 141.224991 38.911701 
-63.500004 141.205002 38.276901 
-63.000000 141.179993 37.514999 
-62.500000 141.167999 37.134098 
-62.000000 141.151993 36.626202 
-61.500000 141.139999 36.245300 
-61.000000 141.128006 35.864403 
-60.500000 141.111008 35.356499 
-60.000000 141.078995 34.340797 
-59.500000 141.050995 33.452000 
-59.000000 141.037994 33.070999 
-58.500000 141.026001 32.690102 
-58.000000 141.009995 32.182201 
-57.500000 140.994003 31.674400 
-57.000000 140.977997 31.166500 
-56.500000 140.961014 30.658602 
-56.000000 140.945007 30.150700 
-55.500000 140.929001 29.642799 
-55.000000 140.917007 29.261900 
-54.500000 140.896011 28.627100 
-54.000000 140.880005 28.119202 
-53.500000 140.863998 27.611300 
-53.000000 140.823013 26.341600 
-52.500000 140.664993 21.389700 
-52.000000 140.660995 21.262699 
-51.500000 140.636993 20.500900 
-51.000000 140.617004 19.866100 
-50.500000 140.568008 18.342400 
-50.000000 140.531006 17.199701 
-49.500000 140.388992 12.755700 
-49.000000 140.369003 12.120800 
-91.750000 141.354996 20.245998 
-91.250000 141.378998 21.007801 
-90.750000 141.574997 27.229300 
-90.250000 141.595001 27.864100 
-89.750000 141.622009 28.752901 
-89.250000 141.606003 28.245001 
-88.750000 141.813995 34.847401 
-88.250000 141.877991 36.878899 
-87.750000 141.912994 38.021698 
-87.250000 141.936996 38.783501 
-86.750000 141.960999 39.545300 
-86.250000 141.976990 40.053200 
-85.750000 141.996994 40.688000 
-85.250000 142.013000 41.195900 
-84.750000 142.032990 41.830700 
-84.250000 142.045013 42.211601 
-83.750000 142.057007 42.592602 
-83.250000 142.072998 43.100403 
-82.750000 142.085007 43.481400 
-82.250000 142.097000 43.862301 
-81.750000 142.109009 44.243202 
-81.250000 142.121002 44.624100 
-80.750000 142.132996 45.005001 
-80.250000 142.144989 45.385902 
-79.750000 142.156998 45.766800 
-79.250000 142.165009 46.020702 
-78.750000 142.173004 46.274700 
-78.250000 142.177002 46.401600 
-77.750000 142.181000 46.528599 
-77.250000 142.184998 46.655598 
-76.750000 142.184998 46.655598 
-76.250000 142.188995 46.782501 
-75.750000 142.188995 46.782501 
-75.250000 142.184998 46.655598 
-74.750000 142.184998 46.655598 
-74.250000 142.184998 46.655598 
-73.750000 142.181000 46.528599 
-73.250000 142.181000 46.528599 
-72.750000 142.177002 46.401600 
-72.250000 142.173004 46.274700 
-71.750000 142.169006 46.147701 
-71.250000 142.165009 46.020702 
-70.750000 142.156998 45.766800 
-70.250000 142.149002 45.512798 
-69.750000 142.144989 45.385902 
-69.250000 142.132996 45.005001 
-68.750000 142.125000 44.750999 
-68.250000 142.113007 44.370098 
-67.750000 142.097000 43.862301 
-67.250000 142.085007 43.481400 
-66.750000 142.069000 42.973499 
-66.250000 142.052994 42.465603 
-65.750000 142.017014 41.322903 
-65.250000 142.001007 40.814999 
-64.750000 141.981003 40.180099 
-64.250000 141.945007 39.037399 
-63.750000 141.929001 38.529499 
-63.249996 141.912994 38.021698 
-62.749996 141.898010 37.513802 
-62.250000 141.886002 37.132900 
-61.750000 141.870010 36.625000 
-61.250000 141.862000 36.371101 
-60.750000 141.849991 35.990200 
-60.250000 141.841995 35.736198 
-59.750000 141.818008 34.974400 
-59.250000 141.757996 33.069901 
-58.750000 141.746002 32.689003 
-58.250000 141.734009 32.308002 
-57.750000 141.718002 31.800200 
-57.250000 141.701996 31.292301 
-56.750000 141.690002 30.911402 
-56.250000 141.673996 30.403500 
-55.750000 141.654007 29.768700 
-55.250000 141.638000 29.260799 
-54.750000 141.617996 28.625900 
-54.250000 141.598999 27.991098 
-53.750000 141.578995 27.356300 
-53.250000 141.559006 26.721399 
-52.750000 141.531006 25.832602 
-52.250000 141.362991 20.499901 
-51.750000 141.354996 20.245998 
-51.250000 141.326996 19.357201 
-50.750000 141.292007 18.214500 
-50.250000 141.259995 17.198700 
-49.750000 141.104004 12.246901 
-49.250000 141.095993 11.993000 
-48.750000 141.080002 11.485100 
-92.000000 142.074005 19.990999 
-91.500000 142.100998 20.879799 
-91.000000 142.285995 26.847300 
-90.500000 142.308990 27.609100 
-90.000000 142.343994 28.751801 
-89.500000 142.355988 29.132700 
-89.000000 142.470001 32.814701 
-88.500000 142.528000 34.719299 
-88.000000 142.587006 36.623798 
-87.500000 142.615005 37.512501 
-87.000000 142.638000 38.274300 
-86.500000 142.666000 39.163101 
-86.000000 142.681000 39.671001 
-85.500000 142.701004 40.305801 
-85.000000 142.716003 40.813698 
-84.500000 142.736008 41.448502 
-84.000000 142.748001 41.829399 
-83.500000 142.759995 42.210300 
-83.000000 142.771011 42.591301 
-82.500000 142.783005 42.972198 
-82.000000 142.799011 43.480000 
-81.500000 142.807007 43.733898 
-81.000000 142.818008 44.114899 
-80.500000 142.830002 44.495800 
-80.000000 142.841995 44.876698 
-79.500000 142.849991 45.130600 
-79.000000 142.860992 45.511497 
-78.500000 142.865005 45.638500 
-78.000000 142.873001 45.892399 
-77.500000 142.873001 45.892399 
-77.000000 142.876999 46.019402 
-76.500000 142.881012 46.146301 
-76.000000 142.884995 46.273300 
-75.500000 142.881012 46.146301 
-75.000000 142.881012 46.146301 
-74.500000 142.884995 46.273300 
-74.000000 142.881012 46.146301 
-73.500000 142.881012 46.146301 
-73.000000 142.876999 46.019402 
-72.500000 142.873001 45.892399 
-72.000000 142.868988 45.765400 
-71.500000 142.865005 45.638500 
-71.000000 142.860992 45.511497 
-70.500000 142.854004 45.257599 
-70.000000 142.846008 45.003601 
-69.500000 142.841995 44.876698 
-69.000000 142.830002 44.495800 
-68.500000 142.821991 44.241802 
-68.000000 142.807007 43.733898 
-67.500000 142.794998 43.353001 
-67.000000 142.783005 42.972198 
-66.500000 142.766998 42.464302 
-66.000000 142.744003 41.702503 
-65.500000 142.716003 40.813698 
-65.000000 142.701004 40.305801 
-64.500000 142.684998 39.798000 
-64.000000 142.649994 38.655201 
-63.500004 142.642014 38.401299 
-63.000000 142.621994 37.766502 
-62.500000 142.610992 37.385601 
-62.000000 142.602997 37.131702 
-61.500000 142.591003 36.750702 
-61.000000 142.582993 36.496799 
-60.500000 142.570999 36.115898 
-60.000000 142.556000 35.608002 
-59.500000 142.535995 34.973202 
-59.000000 142.465988 32.687798 
-58.500000 142.465988 32.687798 
-58.000000 142.450012 32.179901 
-57.500000 142.437988 31.799000 
-57.000000 142.427002 31.418100 
-56.500000 142.415009 31.037201 
-56.000000 142.399002 30.529301 
-55.500000 142.380005 29.894499 
-55.000000 142.355988 29.132700 
-54.500000 142.333008 28.370899 
-54.000000 142.296997 27.228201 
-53.500000 142.274002 26.466400 
-53.000000 142.258011 25.958500 
-52.500000 142.210999 24.434900 
-52.000000 142.057999 19.483200 
-51.500000 142.039001 18.848301 
-51.000000 142.014999 18.086500 
-50.500000 141.983994 17.070801 
-50.000000 141.826996 11.992100 
-49.500000 141.826996 11.992100 
-49.000000 141.807999 11.357201 
-91.750000 142.820007 20.624901 
-91.250000 142.992996 26.338299 
-90.750000 143.020004 27.227100 
-90.250000 143.047012 28.115799 
-89.750000 143.074005 29.004601 
-89.250000 143.101013 29.893400 
-88.750000 143.181992 32.559601 
-88.250000 143.239014 34.464100 
-87.750000 143.285004 35.987701 
-87.250000 143.319992 37.130402 
-86.750000 143.343002 37.892200 
-86.250000 143.365997 38.653999 
-85.750000 143.384995 39.288799 
-85.250000 143.401001 39.796700 
-84.750000 143.411987 40.177597 
-84.250000 143.432007 40.812401 
-83.750000 143.443008 41.193298 
-83.250000 143.455002 41.574200 
-82.750000 143.470001 42.082100 
-82.250000 143.481995 42.463001 
-81.750000 143.492996 42.843899 
-81.250000 143.505005 43.224701 
-80.750000 143.520004 43.732597 
-80.250000 143.528000 43.986599 
-79.750000 143.539001 44.367500 
-79.250000 143.542999 44.494400 
-78.750000 143.555008 44.875301 
-78.250000 143.561996 45.129200 
-77.750000 143.565994 45.256203 
-77.250000 143.570007 45.383099 
-76.750000 143.574005 45.510098 
-76.250000 143.577988 45.637100 
-75.750000 143.577988 45.637100 
-75.250000 143.577988 45.637100 
-74.750000 143.577988 45.637100 
-74.250000 143.577988 45.637100 
-73.750000 143.577988 45.637100 
-73.250000 143.577988 45.637100 
-72.750000 143.574005 45.510098 
-72.250000 143.570007 45.383099 
-71.750000 143.565994 45.256203 
-71.250000 143.558990 45.002300 
-70.750000 143.555008 44.875301 
-70.250000 143.551010 44.748299 
-69.750000 143.542999 44.494400 
-69.250000 143.535995 44.240501 
-68.750000 143.528000 43.986599 
-68.250000 143.516006 43.605598 
-67.750000 143.505005 43.224701 
-67.250000 143.492996 42.843899 
-66.750000 143.478012 42.335999 
-66.250000 143.459000 41.701202 
-65.750000 143.438995 41.066299 
-65.250000 143.419998 40.431499 
-64.750000 143.401001 39.796700 
-64.250000 143.373993 38.907902 
-63.750000 143.362000 38.527000 
-63.249996 143.347000 38.019199 
-62.749996 143.338989 37.765202 
-62.250000 143.328003 37.384300 
-61.750000 143.319992 37.130402 
-61.250000 143.308990 36.749500 
-60.750000 143.300995 36.495602 
-60.250000 143.285004 35.987701 
-59.750000 143.273987 35.606800 
-59.250000 143.188995 32.813602 
-58.750000 143.188995 32.813602 
-58.250000 143.184998 32.686600 
-57.750000 143.177994 32.432701 
-57.250000 143.162003 31.924799 
-56.750000 143.151001 31.543900 
-56.250000 143.139008 31.163000 
-55.750000 143.123993 30.655199 
-55.250000 143.108994 30.147299 
-54.750000 143.085007 29.385500 
-54.250000 143.047012 28.115799 
-53.750000 142.982010 25.957399 
-53.250000 142.970001 25.576500 
-52.750000 142.947006 24.814701 
-52.250000 142.762009 18.720400 
-51.750000 142.757996 18.593401 
-51.250000 142.735001 17.831600 
-50.750000 142.701004 16.688900 
-50.250000 142.651001 15.038400 
-49.750000 142.557999 11.991200 
-49.250000 142.542999 11.483299 
-92.000000 143.524002 19.862101 
-91.500000 143.705002 25.956299 
-91.000000 143.715988 26.337200 
-90.500000 143.750000 27.479900 
-90.000000 143.781006 28.495600 
-89.500000 143.802994 29.257401 
-89.000000 143.830002 30.146200 
-88.500000 143.893997 32.304501 
-88.000000 143.951004 34.209003 
-87.500000 143.987991 35.478600 
-87.000000 144.018997 36.494301 
-86.500000 144.049011 37.510101 
-86.000000 144.063995 38.017899 
-85.500000 144.082993 38.652699 
-85.000000 144.102005 39.287498 
-84.500000 144.117004 39.795399 
-84.000000 144.132004 40.303303 
-83.500000 144.143005 40.684101 
-83.000000 144.153992 41.064999 
-82.500000 144.165985 41.445900 
-82.000000 144.181000 41.953800 
-81.500000 144.192001 42.334698 
-81.000000 144.207001 42.842499 
-80.500000 144.214996 43.096401 
-80.000000 144.225998 43.477402 
-79.500000 144.237991 43.858200 
-79.000000 144.241013 43.985199 
-78.500000 144.255997 44.493103 
-78.000000 144.260010 44.619999 
-77.500000 144.263992 44.746998 
-77.000000 144.268005 44.874001 
-76.500000 144.268005 44.874001 
-76.000000 144.272003 45.000900 
-75.500000 144.272003 45.000900 
-75.000000 144.272003 45.000900 
-74.500000 144.274994 45.127899 
-74.000000 144.272003 45.000900 
-73.500000 144.272003 45.000900 
-73.000000 144.272003 45.000900 
-72.500000 144.268005 44.874001 
-72.000000 144.268005 44.874001 
-71.500000 144.263992 44.746998 
-71.000000 144.255997 44.493103 
-70.500000 144.253006 44.366100 
-70.000000 144.244995 44.112202 
-69.500000 144.237991 43.858200 
-69.000000 144.234009 43.731297 
-68.500000 144.222000 43.350399 
-68.000000 144.210999 42.969498 
-67.500000 144.204010 42.715603 
-67.000000 144.188004 42.207699 
-66.500000 144.172989 41.699902 
-66.000000 144.153992 41.064999 
-65.500000 144.139008 40.557198 
-65.000000 144.119995 39.922302 
-64.500000 144.102005 39.287498 
-64.000000 144.082993 38.652699 
-63.500004 144.070999 38.271801 
-63.000000 144.059998 37.890900 
-62.500000 144.052994 37.636997 
-62.000000 144.044998 37.383099 
-61.500000 144.033997 37.002197 
-61.000000 144.026001 36.748302 
-60.500000 144.018997 36.494301 
-60.000000 144.007004 36.113400 
-59.500000 143.992004 35.605598 
-59.000000 143.909012 32.812401 
-58.500000 143.909012 32.812401 
-58.000000 143.904999 32.685398 
-57.500000 143.893997 32.304501 
-57.000000 143.883011 31.923599 
-56.500000 143.870987 31.542700 
-56.000000 143.860001 31.161901 
-55.500000 143.841003 30.526999 
-55.000000 143.825989 30.019199 
-54.500000 143.811005 29.511301 
-54.000000 143.753998 27.606901 
-53.500000 143.671005 24.813700 
-53.000000 143.663010 24.559700 
-52.500000 143.595001 22.274399 
-52.000000 143.474991 18.211500 
-51.500000 143.452011 17.449800 
-51.000000 143.429001 16.688000 
-50.500000 143.331009 13.386900 
-50.000000 143.296997 12.244201 
-49.500000 143.270996 11.355499 
-49.000000 143.160995 7.673540 
-91.750000 144.258011 20.115000 
-91.250000 144.425003 25.828300 
-90.750000 144.451004 26.716999 
-90.250000 144.476990 27.605700 
-89.750000 144.509995 28.748400 
-89.250000 144.531998 29.510201 
-88.750000 144.562012 30.525900 
-88.250000 144.617004 32.430298 
-87.750000 144.666000 34.080799 
-87.250000 144.687988 34.842598 
-86.750000 144.721008 35.985298 
-86.250000 144.747009 36.874001 
-85.750000 144.766006 37.508801 
-85.250000 144.787994 38.270599 
-84.750000 144.803009 38.778397 
-84.250000 144.813995 39.159302 
-83.750000 144.832993 39.794098 
-83.250000 144.839996 40.048000 
-82.750000 144.854996 40.555901 
-82.250000 144.865997 40.936802 
-81.750000 144.880997 41.444599 
-81.250000 144.892014 41.825500 
-80.750000 144.903000 42.206398 
-80.250000 144.914001 42.587299 
-79.750000 144.925003 42.968197 
-79.250000 144.932999 43.222099 
-78.750000 144.935989 43.349003 
-78.250000 144.947006 43.729900 
-77.750000 144.955002 43.983898 
-77.250000 144.959000 44.110802 
-76.750000 144.959000 44.110802 
-76.250000 144.961990 44.237801 
-75.750000 144.966003 44.364799 
-75.250000 144.966003 44.364799 
-74.750000 144.970001 44.491699 
-74.250000 144.970001 44.491699 
-73.750000 144.966003 44.364799 
-73.250000 144.966003 44.364799 
-72.750000 144.966003 44.364799 
-72.250000 144.961990 44.237801 
-71.750000 144.961990 44.237801 
-71.250000 144.959000 44.110802 
-70.750000 144.951004 43.856899 
-70.250000 144.947006 43.729900 
-69.750000 144.940002 43.476002 
-69.250000 144.932999 43.222099 
-68.750000 144.929001 43.095100 
-68.250000 144.917999 42.714199 
-67.750000 144.909988 42.460300 
-67.250000 144.899002 42.079399 
-66.750000 144.884003 41.571598 
-66.250000 144.869995 41.063702 
-65.750000 144.858002 40.682899 
-65.250000 144.839996 40.048000 
-64.750000 144.820999 39.413200 
-64.250000 144.806992 38.905399 
-63.750000 144.792007 38.397499 
-63.249996 144.783997 38.143600 
-62.749996 144.773010 37.762703 
-62.250000 144.766006 37.508801 
-61.750000 144.761993 37.381802 
-61.250000 144.750992 37.000999 
-60.750000 144.747009 36.874001 
-60.250000 144.736008 36.493099 
-59.750000 144.724991 36.112202 
-59.250000 144.694992 35.096500 
-58.750000 144.628998 32.811199 
-58.250000 144.628998 32.811199 
-57.750000 144.621002 32.557301 
-57.250000 144.613998 32.303402 
-56.750000 144.598999 31.795502 
-56.250000 144.587997 31.414598 
-55.750000 144.576996 31.033701 
-55.250000 144.550995 30.145000 
-54.750000 144.539993 29.764101 
-54.250000 144.509995 28.748400 
-53.750000 144.369003 23.923901 
-53.250000 144.364990 23.796900 
-52.750000 144.343002 23.035099 
-52.250000 144.183990 17.575800 
-51.750000 144.169006 17.067900 
-51.250000 144.139008 16.052200 
-50.750000 144.061005 13.386000 
-50.250000 144.035004 12.497300 
-49.750000 143.994995 11.100700 
-49.250000 143.928009 8.815370 
-48.750000 143.905991 8.053610 
-48.250000 143.886993 7.418780 
-91.500000 145.134003 25.319399 
-91.000000 145.145004 25.700201 
-90.500000 145.173996 26.715900 
-90.000000 145.206009 27.858601 
-89.500000 145.232010 28.747299 
-89.000000 145.250000 29.382101 
-88.500000 145.283005 30.524700 
-88.000000 145.334000 32.302200 
-87.500000 145.376999 33.825699 
-87.000000 145.395996 34.460499 
-86.500000 145.425003 35.476200 
-86.000000 145.449997 36.364902 
-85.500000 145.464996 36.872799 
-85.000000 145.487000 37.634499 
-84.500000 145.504990 38.269299 
-84.000000 145.515991 38.650200 
-83.500000 145.529999 39.158001 
-83.000000 145.541000 39.538902 
-82.500000 145.552002 39.919800 
-82.000000 145.567001 40.427601 
-81.500000 145.581009 40.935501 
-81.000000 145.587997 41.189400 
-80.500000 145.598999 41.570297 
-80.000000 145.610001 41.951202 
-79.500000 145.621002 42.332001 
-79.000000 145.628006 42.585999 
-78.500000 145.632004 42.712902 
-78.000000 145.639008 42.966900 
-77.500000 145.647003 43.220798 
-77.000000 145.649994 43.347702 
-76.500000 145.656998 43.601597 
-76.000000 145.660995 43.728600 
-75.500000 145.660995 43.728600 
-75.000000 145.660995 43.728600 
-74.500000 145.665009 43.855598 
-74.000000 145.665009 43.855598 
-73.500000 145.665009 43.855598 
-73.000000 145.660995 43.728600 
-72.500000 145.660995 43.728600 
-72.000000 145.656998 43.601597 
-71.500000 145.653992 43.474701 
-71.000000 145.649994 43.347702 
-70.500000 145.647003 43.220798 
-70.000000 145.642990 43.093800 
-69.500000 145.636002 42.839901 
-69.000000 145.632004 42.712902 
-68.500000 145.625000 42.459000 
-68.000000 145.616989 42.205097 
-67.500000 145.606995 41.824200 
-67.000000 145.595993 41.443298 
-66.500000 145.585007 41.062401 
-66.000000 145.569992 40.554604 
-65.500000 145.556000 40.046799 
-65.000000 145.541000 39.538902 
-64.500000 145.527008 39.031101 
-64.000000 145.511993 38.523201 
-63.500004 145.504990 38.269299 
-63.000000 145.496994 38.015400 
-62.500000 145.487000 37.634499 
-62.000000 145.483002 37.507603 
-61.500000 145.475998 37.253601 
-61.000000 145.468002 36.999699 
-60.500000 145.460999 36.745800 
-60.000000 145.449997 36.364902 
-59.500000 145.436005 35.857101 
-59.000000 145.403000 34.714401 
-58.500000 145.345001 32.683102 
-58.000000 145.345001 32.683102 
-57.500000 145.337006 32.429100 
-57.000000 145.322998 31.921301 
-56.500000 145.311996 31.540401 
-56.000000 145.300995 31.159500 
-55.500000 145.283005 30.524700 
-55.000000 145.261002 29.763000 
-54.500000 145.246002 29.255100 
-54.000000 145.155991 26.081100 
-53.500000 145.064987 22.907101 
-53.000000 145.068008 23.034100 
-52.500000 145.054001 22.526201 
-52.000000 144.897003 17.066900 
-51.500000 144.843002 15.162499 
-51.000000 144.798996 13.639000 
-50.500000 144.769989 12.623300 
-50.000000 144.743988 11.734600 
-49.500000 144.679001 9.449341 
-49.000000 144.660995 8.814530 
-48.500000 144.646011 8.306689 
-48.000000 144.623993 7.544930 
-47.500000 144.602997 6.783170 
-47.000000 144.581009 6.021400 
-91.250000 145.854004 25.191299 
-90.750000 145.875000 25.953098 
-90.250000 145.904007 26.968800 
-89.750000 145.932007 27.984400 
-89.250000 145.949997 28.619200 
-88.750000 145.972000 29.380999 
-88.250000 146.007004 30.650499 
-87.750000 146.046997 32.047100 
-87.250000 146.079010 33.189697 
-86.750000 146.107010 34.205399 
-86.250000 146.128998 34.967098 
-85.750000 146.149994 35.728901 
-85.250000 146.171005 36.490601 
-84.750000 146.185989 36.998501 
-84.250000 146.199997 37.506302 
-83.750000 146.213989 38.014099 
-83.250000 146.227997 38.522003 
-82.750000 146.238998 38.902802 
-82.250000 146.250000 39.283699 
-81.750000 146.264008 39.791599 
-81.250000 146.278000 40.299400 
-80.750000 146.285995 40.553303 
-80.250000 146.300003 41.061100 
-79.750000 146.311005 41.441998 
-79.250000 146.318008 41.695900 
-78.750000 146.325012 41.949802 
-78.250000 146.332001 42.203697 
-77.750000 146.339005 42.457699 
-77.250000 146.342987 42.584698 
-76.750000 146.346008 42.711601 
-76.250000 146.349991 42.838600 
-75.750000 146.353012 42.965500 
-75.250000 146.356995 43.092499 
-74.750000 146.356995 43.092499 
-74.250000 146.360001 43.219398 
-73.750000 146.356995 43.092499 
-73.250000 146.360001 43.219398 
-72.750000 146.360001 43.219398 
-72.250000 146.356995 43.092499 
-71.750000 146.349991 42.838600 
-71.250000 146.349991 42.838600 
-70.750000 146.346008 42.711601 
-70.250000 146.342987 42.584698 
-69.750000 146.339005 42.457699 
-69.250000 146.332001 42.203697 
-68.750000 146.328003 42.076801 
-68.250000 146.320999 41.822899 
-67.750000 146.313995 41.568996 
-67.250000 146.307007 41.314999 
-66.750000 146.292999 40.807198 
-66.250000 146.281998 40.426399 
-65.750000 146.267990 39.918503 
-65.250000 146.257004 39.537601 
-64.750000 146.246002 39.156799 
-64.250000 146.231995 38.648899 
-63.750000 146.220993 38.268101 
-63.249996 146.213989 38.014099 
-62.749996 146.207001 37.760201 
-62.250000 146.199997 37.506302 
-61.750000 146.195999 37.379299 
-61.250000 146.189011 37.125401 
-60.750000 146.182007 36.871502 
-60.250000 146.175003 36.617599 
-59.750000 146.164001 36.236698 
-59.250000 146.149994 35.728901 
-58.750000 146.068008 32.808800 
-58.250000 146.061005 32.554897 
-57.750000 146.056992 32.428001 
-57.250000 146.050003 32.174000 
-56.750000 146.035995 31.666201 
-56.250000 146.022003 31.158401 
-55.750000 146.011002 30.777498 
-55.250000 145.988998 30.015800 
-54.750000 145.963989 29.127001 
-54.250000 145.940002 28.238300 
-53.750000 145.783005 22.652199 
-53.250000 145.785995 22.779100 
-52.750000 145.775009 22.398300 
-52.250000 145.639999 17.573799 
-51.750000 145.560989 14.780701 
-51.250000 145.544006 14.146000 
-50.750000 145.508011 12.876400 
-50.250000 145.483002 11.987599 
-49.750000 145.440002 10.464200 
-49.250000 145.408005 9.321530 
-48.750000 145.396988 8.940650 
-48.250000 145.379013 8.305860 
-47.750000 145.365005 7.798040 
-47.250000 145.339996 6.909330 
-46.750000 145.328995 6.528440 
-46.250000 145.311996 5.885690 
-45.750000 145.298996 5.345960 
-91.500000 146.546005 24.047701 
-91.000000 146.574005 25.063301 
-90.500000 146.598999 25.952000 
-90.000000 146.620010 26.713699 
-89.500000 146.651001 27.856400 
-89.000000 146.671997 28.618099 
-88.500000 146.693008 29.379801 
-88.000000 146.725006 30.522400 
-87.500000 146.763000 31.918999 
-87.000000 146.783997 32.680702 
-86.500000 146.815994 33.823299 
-86.000000 146.833008 34.458099 
-85.500000 146.847000 34.965900 
-85.000000 146.871994 35.854599 
-84.500000 146.886002 36.362400 
-84.000000 146.899994 36.870300 
-83.500000 146.913010 37.378098 
-83.000000 146.927002 37.885902 
-82.500000 146.938004 38.266800 
-82.000000 146.947998 38.647701 
-81.500000 146.962006 39.155499 
-81.000000 146.975998 39.663300 
-80.500000 146.983002 39.917202 
-80.000000 146.997009 40.425098 
-79.500000 147.007996 40.805897 
-79.000000 147.018005 41.186798 
-78.500000 147.021988 41.313702 
-78.000000 147.025009 41.440701 
-77.500000 147.031998 41.694599 
-77.000000 147.039001 41.948502 
-76.500000 147.046005 42.202396 
-76.000000 147.046005 42.202396 
-75.500000 147.049988 42.329399 
-75.000000 147.049988 42.329399 
-74.500000 147.053009 42.456398 
-74.000000 147.053009 42.456398 
-73.500000 147.053009 42.456398 
-73.000000 147.053009 42.456398 
-72.500000 147.053009 42.456398 
-72.000000 147.049988 42.329399 
-71.500000 147.046005 42.202396 
-71.000000 147.046005 42.202396 
-70.500000 147.042999 42.075500 
-70.000000 147.035995 41.821598 
-69.500000 147.035995 41.821598 
-69.000000 147.028992 41.567703 
-68.500000 147.021988 41.313702 
-68.000000 147.018005 41.186798 
-67.500000 147.011002 40.932899 
-67.000000 147.000992 40.552002 
-66.500000 146.990005 40.171101 
-66.000000 146.979996 39.790298 
-65.500000 146.969009 39.409401 
-65.000000 146.962006 39.155499 
-64.500000 146.947998 38.647701 
-64.000000 146.941010 38.393799 
-63.500004 146.931000 38.012901 
-63.000000 146.927002 37.885902 
-62.500000 146.920990 37.632000 
-62.000000 146.913010 37.378098 
-61.500000 146.910004 37.251099 
-61.000000 146.903000 36.997200 
-60.500000 146.896011 36.743298 
-60.000000 146.886002 36.362400 
-59.500000 146.875000 35.981598 
-59.000000 146.854004 35.219799 
-58.500000 146.791000 32.934597 
-58.000000 146.773987 32.299801 
-57.500000 146.770004 32.172901 
-57.000000 146.759995 31.792000 
-56.500000 146.746002 31.284199 
-56.000000 146.727997 30.649399 
-55.500000 146.714005 30.141600 
-55.000000 146.693008 29.379801 
-54.500000 146.658005 28.110300 
-54.000000 146.535995 23.666801 
-53.500000 146.522003 23.158998 
-53.000000 146.507996 22.651100 
-52.500000 146.433990 19.985001 
-52.000000 146.360992 17.319000 
-51.500000 146.279999 14.398900 
-51.000000 146.251999 13.383300 
-50.500000 146.231003 12.621600 
-50.000000 146.195999 11.352000 
-49.500000 146.171997 10.463300 
-49.000000 146.147995 9.574610 
-48.500000 146.134003 9.066780 
-48.000000 146.123001 8.685910 
-47.500000 146.101990 7.924150 
-47.000000 146.087997 7.416320 
-46.500000 146.070999 6.781550 
-46.000000 146.059998 6.400690 
-45.500000 146.046005 5.884890 
-45.000000 146.025009 4.940380 
-44.500000 146.005997 4.130780 
-91.250000 147.264008 23.792702 
-90.750000 147.294998 24.935299 
-90.250000 147.322006 25.950899 
-89.750000 147.335999 26.458700 
-89.250000 147.367004 27.601299 
-88.750000 147.384003 28.236101 
-88.250000 147.411011 29.251699 
-87.750000 147.438995 30.267401 
-87.250000 147.462997 31.156101 
-86.750000 147.489990 32.171700 
-86.250000 147.517990 33.187302 
-85.750000 147.538010 33.949100 
-85.250000 147.552002 34.456902 
-84.750000 147.576004 35.345600 
-84.250000 147.589996 35.853401 
-83.750000 147.603012 36.361198 
-83.250000 147.613007 36.742100 
-82.750000 147.626999 37.249901 
-82.250000 147.634003 37.503799 
-81.750000 147.648010 38.011600 
-81.250000 147.658005 38.392498 
-80.750000 147.671997 38.900299 
-80.250000 147.685013 39.408100 
-79.750000 147.695999 39.788998 
-79.250000 147.703003 40.042900 
-78.750000 147.709000 40.296799 
-78.250000 147.716003 40.550701 
-77.750000 147.723007 40.804600 
-77.250000 147.729996 41.058498 
-76.750000 147.733002 41.185497 
-76.250000 147.740005 41.439400 
-75.750000 147.744003 41.566402 
-75.250000 147.744003 41.566402 
-74.750000 147.744003 41.566402 
-74.250000 147.746994 41.693298 
-73.750000 147.746994 41.693298 
-73.250000 147.751007 41.820297 
-72.750000 147.746994 41.693298 
-72.250000 147.746994 41.693298 
-71.750000 147.744003 41.566402 
-71.250000 147.744003 41.566402 
-70.750000 147.744003 41.566402 
-70.250000 147.737000 41.312401 
-69.750000 147.733002 41.185497 
-69.250000 147.729996 41.058498 
-68.750000 147.727005 40.931602 
-68.250000 147.720001 40.677700 
-67.750000 147.713013 40.423798 
-67.250000 147.706009 40.169899 
-66.750000 147.699005 39.915901 
-66.250000 147.692001 39.661999 
-65.750000 147.681992 39.281200 
-65.250000 147.674988 39.027298 
-64.750000 147.664993 38.646400 
-64.250000 147.658005 38.392498 
-63.750000 147.648010 38.011600 
-63.249996 147.643997 37.884701 
-62.749996 147.636993 37.630798 
-62.250000 147.631012 37.376900 
-61.750000 147.626999 37.249901 
-61.250000 147.620010 36.995998 
-60.750000 147.613007 36.742100 
-60.250000 147.610001 36.615101 
-59.750000 147.599991 36.234299 
-59.250000 147.582993 35.599499 
-58.750000 147.561996 34.837803 
-58.250000 147.514008 33.060402 
-57.750000 147.487000 32.044804 
-57.250000 147.475998 31.663898 
-56.750000 147.462997 31.156101 
-56.250000 147.449005 30.648300 
-55.750000 147.434998 30.140400 
-55.250000 147.411011 29.251699 
-54.750000 147.367004 27.601299 
-54.250000 147.302002 25.189201 
-53.750000 147.278000 24.300501 
-53.250000 147.257004 23.538799 
-52.750000 147.187988 20.999701 
-52.250000 147.139999 19.222300 
-51.750000 147.091995 17.445000 
-51.250000 147.007004 14.271100 
-50.750000 146.969009 12.874599 
-50.250000 146.951996 12.239799 
-49.750000 146.925003 11.224200 
-49.250000 146.904007 10.462399 
-48.750000 146.887009 9.827650 
-48.250000 146.873001 9.319830 
-47.750000 146.862991 8.938970 
-47.250000 146.845993 8.304190 
-46.750000 146.832001 7.796380 
-46.250000 146.815002 7.161600 
-45.750000 146.800995 6.653790 
-45.250000 146.791000 6.272920 
-44.750000 146.772003 5.479300 
-44.250000 146.766006 5.209420 
-43.750000 146.748001 4.399840 
-43.250000 146.732010 3.725190 
-91.500000 147.917999 21.125599 
-91.000000 147.985001 23.664700 
-90.500000 148.011993 24.680300 
-90.000000 148.039001 25.695900 
-89.500000 148.052002 26.203699 
-89.000000 148.078995 27.219400 
-88.500000 148.098999 27.981100 
-88.000000 148.123001 28.869801 
-87.500000 148.149994 29.885401 
-87.000000 148.169998 30.647100 
-86.500000 148.200012 31.789701 
-86.000000 148.216995 32.424400 
-85.500000 148.240005 33.313099 
-85.000000 148.257004 33.947899 
-84.500000 148.274002 34.582600 
-84.000000 148.287003 35.090401 
-83.500000 148.301010 35.598301 
-83.000000 148.311005 35.979099 
-82.500000 148.328003 36.613899 
-82.000000 148.334000 36.867802 
-81.500000 148.348007 37.375599 
-81.000000 148.358002 37.756500 
-80.500000 148.367996 38.137302 
-80.000000 148.378006 38.518200 
-79.500000 148.388000 38.899002 
-79.000000 148.397995 39.279900 
-78.500000 148.404999 39.533802 
-78.000000 148.412003 39.787697 
-77.500000 148.414993 39.914700 
-77.000000 148.421997 40.168598 
-76.500000 148.427994 40.422501 
-76.000000 148.432007 40.549400 
-75.500000 148.434998 40.676399 
-75.000000 148.438004 40.803299 
-74.500000 148.442001 40.930302 
-74.000000 148.444992 41.057198 
-73.500000 148.444992 41.057198 
-73.000000 148.442001 40.930302 
-72.500000 148.442001 40.930302 
-72.000000 148.442001 40.930302 
-71.500000 148.442001 40.930302 
-71.000000 148.438004 40.803299 
-70.500000 148.438004 40.803299 
-70.000000 148.434998 40.676399 
-69.500000 148.432007 40.549400 
-69.000000 148.427994 40.422501 
-68.500000 148.425003 40.295502 
-68.000000 148.417999 40.041599 
-67.500000 148.414993 39.914700 
-67.000000 148.407990 39.660801 
-66.500000 148.402008 39.406898 
-66.000000 148.390991 39.026001 
-65.500000 148.385010 38.772099 
-65.000000 148.378006 38.518200 
-64.500000 148.371002 38.264301 
-64.000000 148.360992 37.883400 
-63.500004 148.358002 37.756500 
-63.000000 148.350998 37.502602 
-62.500000 148.343994 37.248600 
-62.000000 148.341003 37.121696 
-61.500000 148.337997 36.994698 
-61.000000 148.331009 36.740799 
-60.500000 148.324005 36.486900 
-60.000000 148.313995 36.106098 
-59.500000 148.304001 35.725197 
-59.000000 148.294006 35.344299 
-58.500000 148.266998 34.328697 
-58.000000 148.229996 32.932301 
-57.500000 148.196991 31.662699 
-57.000000 148.182999 31.154902 
-56.500000 148.169998 30.647100 
-56.000000 148.149994 29.885401 
-55.500000 148.130005 29.123699 
-55.000000 148.093002 27.727200 
-54.500000 148.058990 26.457600 
-54.000000 148.029007 25.315100 
-53.500000 148.009003 24.553400 
-53.000000 147.955002 22.522099 
-52.500000 147.910995 20.871700 
-52.000000 147.843994 18.332699 
-51.500000 147.746994 14.651000 
-51.000000 147.727005 13.889299 
-50.500000 147.692993 12.619800 
-50.000000 147.676010 11.985001 
-49.500000 147.655991 11.223300 
-49.000000 147.639008 10.588500 
-48.500000 147.625992 10.080700 
-48.000000 147.608994 9.445940 
-47.500000 147.596008 8.938130 
-47.000000 147.585999 8.557270 
-46.500000 147.571991 8.049460 
-46.000000 147.559006 7.541650 
-45.500000 147.544998 7.033820 
-45.000000 147.531998 6.526020 
-44.500000 147.514999 5.883280 
-44.000000 147.503998 5.343560 
-43.500000 147.494995 4.938770 
-43.000000 147.488998 4.668900 
-42.500000 147.465012 3.589440 
-42.000000 147.451004 2.914790 
-91.250000 148.636993 20.870701 
-90.750000 148.697006 23.155800 
-90.250000 148.720001 24.044500 
-89.750000 148.748993 25.187099 
-89.250000 148.769012 25.948700 
-88.750000 148.789001 26.710499 
-88.250000 148.815002 27.726101 
-87.750000 148.835007 28.487801 
-87.250000 148.861008 29.503399 
-86.750000 148.871002 29.884201 
-86.250000 148.901001 31.026800 
-85.750000 148.923996 31.915501 
-85.250000 148.936996 32.423298 
-84.750000 148.955994 33.185001 
-84.250000 148.973007 33.819702 
-83.750000 148.985992 34.327499 
-83.250000 148.999008 34.835300 
-82.750000 149.009003 35.216202 
-82.250000 149.022003 35.723999 
-81.750000 149.035004 36.231800 
-81.250000 149.044998 36.612701 
-80.750000 149.055008 36.993500 
-80.250000 149.065002 37.374401 
-79.750000 149.074997 37.755199 
-79.250000 149.081009 38.009098 
-78.750000 149.095001 38.516903 
-78.250000 149.100998 38.770798 
-77.750000 149.104004 38.897800 
-77.250000 149.111008 39.151699 
-76.750000 149.118011 39.405598 
-76.250000 149.121002 39.532501 
-75.750000 149.127014 39.786400 
-75.250000 149.130997 39.913403 
-74.750000 149.130997 39.913403 
-74.250000 149.134003 40.040298 
-73.750000 149.134003 40.040298 
-73.250000 149.137009 40.167297 
-72.750000 149.134003 40.040298 
-72.250000 149.134003 40.040298 
-71.750000 149.134003 40.040298 
-71.250000 149.137009 40.167297 
-70.750000 149.134003 40.040298 
-70.250000 149.134003 40.040298 
-69.750000 149.134003 40.040298 
-69.250000 149.130997 39.913403 
-68.750000 149.127014 39.786400 
-68.250000 149.121002 39.532501 
-67.750000 149.118011 39.405598 
-67.250000 149.113998 39.278599 
-66.750000 149.107986 39.024700 
-66.250000 149.097992 38.643902 
-65.750000 149.095001 38.516903 
-65.250000 149.087997 38.263000 
-64.750000 149.081009 38.009098 
-64.250000 149.074997 37.755199 
-63.750000 149.070999 37.628201 
-63.249996 149.065002 37.374401 
-62.749996 149.057999 37.120499 
-62.250000 149.055008 36.993500 
-61.750000 149.051987 36.866600 
-61.250000 149.044998 36.612701 
-60.750000 149.039001 36.358700 
-60.250000 149.031998 36.104900 
-59.750000 149.022003 35.723999 
-59.250000 149.011993 35.343098 
-58.750000 148.999008 34.835300 
-58.250000 148.969986 33.692799 
-57.750000 148.943008 32.677200 
-57.250000 148.919998 31.788498 
-56.750000 148.893997 30.772900 
-56.250000 148.873993 30.011200 
-55.750000 148.847992 28.995600 
-55.250000 148.821991 27.980000 
-54.750000 148.805008 27.345200 
-54.250000 148.776001 26.202600 
-53.750000 148.758987 25.567900 
-53.250000 148.712997 23.790600 
-52.750000 148.653992 21.505499 
-52.250000 148.598007 19.347301 
-51.750000 148.549011 17.442999 
-51.250000 148.467010 14.269200 
-50.750000 148.444000 13.380600 
-50.250000 148.420013 12.491899 
-49.750000 148.397003 11.603300 
-49.250000 148.384003 11.095400 
-48.750000 148.374008 10.714600 
-48.250000 148.358002 10.079900 
-47.750000 148.345001 9.572049 
-47.250000 148.332001 9.064250 
